3.5 0 1.2505 
3.19002 0.528615 1.53284 
3.82584 0.231754 1.62686 
3.78234 -0.419008 1.57634 
3.46819 -0.618828 1.24496 
3.55066 -0.2343 0.927074 
3.49446 0.685787 1.30116 
3.17657 -0.340075 0.979336 
2.8365 -0.611239 1.51019 
3.08656 0.0509905 1.22974 
2.60877 -0.41702 0.762386 
3.56764 -0.089672 0.490697 
3.3021 -0.284625 1.41616 
3.8257 -0.353848 1.10037 
3.13207 0.309047 0.965563 
3.78119 0.295274 1.0866 
3.62064 0.478796 0.64915 
2.85231 0.699334 1.45414 
2.45954 0.320174 1.03621 
3.1432 0.379695 0.583308 
3.20272 -0.0732083 0.558514 
2.74982 -0.0980022 1.04115 
2.98925 -0.67309 0.881288 
2.17473 -0.257869 0.860041 
2.5687 0.0984762 0.446925 
2.82345 0.0323138 0.078443 
2.50254 -0.270006 0.00494052 
2.20022 -0.343509 0.156498 
2.89178 -0.483371 0.461094 
2.46812 0.620059 0.580015 
1.955 -0.187367 0.346348 
2.17095 -0.0284325 0.00934468 
1.40263 -0.486272 0.594877 
1.14721 -0.14989 0.735427 
1.73901 -0.345722 0.883052 
1.54318 -0.198097 0.0569922 
1.08313 -0.196847 0.257517 
1.16316 -0.599224 0.0838739 
1.84476 -0.606639 0.0879332 
0.728101 -0.402094 0.570327 
0.359818 -0.669316 0.804047 
1.09685 -0.646199 0.88709 
0.483996 -0.0853306 1.12484 
-0.0527248 -0.359387 1.38075 
0.128119 0.327549 0.794076 
1.04361 0.181183 1.16704 
0.20994 0.170585 1.17704 
0.486504 -0.252188 1.68445 
0.317139 0.474282 1.39135 
0.750509 -0.0431299 1.49152 
0.526197 0.281352 0.829628 
0.117133 -0.034742 0.762635 
-0.294599 -0.156546 0.332813 
-0.00467147 -0.464564 0.443757 
-0.312689 -0.353619 0.985815 
-0.201744 0.188439 1.20439 
0.27084 -0.189295 0.308753 
0.057693 0.000186383 0.00535061 
0.680321 -0.0924267 0.0502869 
0.355863 0.251109 0.485238 
-0.166642 0.259668 0.352376 
0.0527959 0.670973 0.460375 
-0.4765 0.196479 0.66601 
0.308836 0.608711 0.173763 
0.657879 0.430098 0.0304121 
1.14817 0.374008 0.395799 
1.63194 0.65025 0.538774 
1.32766 0.309387 0.00741625 
1.77061 0.139442 0.511165 
0.913602 0.489375 0.919799 
1.27917 0.63671 1.34067 
1.40564 0.230602 1.06687 
1.70096 -0.025743 1.42781 
1.63029 0.495748 1.22796 
1.47246 -0.1444 1.03809 
1.41601 0.263572 1.6897 
1.8849 0.470914 1.96848 
1.62335 0.542346 1.69598 
1.03179 0.645787 1.88961 
1.58734 -0.120648 2.07192 
1.27788 -0.285489 1.5342 
1.51819 -0.623026 1.78969 
1.08496 -0.402875 1.99975 
1.90468 -0.697124 1.92372 
1.69301 0.36882 2.24953 
2.22469 0.143679 2.31132 
2.00777 0.634991 2.29089 
2.50578 0.332614 2.16962 
2.98774 0.0198928 2.05737 
2.94413 0.239691 1.68945 
2.23444 -0.165674 2.0879 
2.42406 0.436271 1.68592 
2.67824 0.134578 1.90956 
2.65084 0.591633 1.99368 
2.28415 0.641868 1.9895 
2.78193 0.506778 2.45301 
2.87794 -0.364073 2.15261 
2.94584 -0.137711 1.58377 
2.46714 -0.305315 1.52634 
2.7381 0.334277 1.41091 
2.79797 0.533976 0.912259 
3.06562 0.601878 1.13862 
2.46581 0.00848429 1.36165 
3.27181 0.131917 1.58924 
3.58698 0.156548 1.95924 
3.32373 -0.107983 1.97943 
3.18087 -0.488404 1.77497 
3.63519 -0.47764 1.97741 
3.47612 0.00633987 2.49085 
3.95592 -0.31661 2.35006 
3.76753 0.486135 2.1679 
3.18467 -0.441293 2.35303 
2.52972 -0.460612 2.31761 
2.66411 -0.634146 1.99159 
3.70943 0.58339 1.74273 
4.14947 0.287716 1.99606 
4.30435 0.132935 2.35473 
3.41433 0.672973 2.10414 
4.62409 0.266529 2.3625 
4.43794 0.140706 1.71071 
4.31212 -0.511088 2.44296 
4.42808 -0.386343 1.89237 
4.97738 -0.645026 2.35159 
3.91703 -0.159696 2.04202 
5.32644 -0.213217 1.97768 
4.86658 -0.668191 1.99568 
5.21564 -0.236383 1.62177 
4.7919 -0.244035 1.54742 
5.31368 -0.671288 1.53089 
5.5178 -0.185007 1.095 
5.42877 -0.546626 0.883958 
5.04286 -0.553447 1.26165 
5.65283 -0.307461 1.44029 
5.79015 0.0624919 1.17309 
6.02279 -0.574656 1.0952 
5.24478 0.169749 1.25963 
6.11262 -0.316117 1.48749 
6.67558 -0.599454 1.30399 
6.11913 0.0086564 1.86092 
6.48605 0.0210578 1.16354 
6.4498 -0.640061 1.66975 
5.78868 -0.133852 1.71859 
6.34372 -0.41902 1.19345 
6.28946 0.030806 1.49174 
6.45955 -0.311866 1.91837 
6.4638 0.119012 2.34746 
6.78305 -0.543633 2.26282 
6.66877 0.0116376 1.6866 
6.804 0.142013 2.18363 
5.96717 -0.271104 2.21585 
6.05029 -0.586909 2.39677 
6.93795 -0.447069 1.71565 
7.52644 -0.336459 1.41015 
7.25084 -0.22491 1.59104 
7.0702 -0.528732 1.18471 
7.0293 0.0336623 1.4951 
7.20669 -0.688667 1.58578 
7.82675 -0.643997 1.31805 
7.85087 -0.0754925 1.28529 
7.6563 -0.572204 1.77781 
7.89854 -0.184233 0.870834 
7.4569 -0.562262 0.961736 
7.64891 -0.389034 0.530928 
7.08677 -0.541609 0.574907 
7.56098 0.241884 0.285836 
7.54975 -0.0947766 0.708345 
7.61861 -0.173482 0.206344 
7.29187 -0.0901982 0.336002 
6.93482 0.208638 0.141076 
7.09694 0.314909 0.541035 
6.75601 -0.310755 0.489322 
7.36215 -0.626058 0.115445 
6.6515 0.308976 0.696355 
6.84688 -0.629731 0.177981 
6.46273 -0.54053 0.480067 
6.45347 0.00676211 0.339554 
6.30169 -0.570789 0.128311 
6.35525 0.00653352 0.767665 
5.85508 -0.379843 0.225898 
5.67422 0.0248122 0.178488 
6.25973 -0.427253 0.753603 
6.10425 -0.570222 0.477835 
5.6647 -0.127906 0.722026 
5.26456 -0.0803305 0.297602 
5.33626 0.313528 0.22965 
4.67404 0.219182 0.369306 
5.0348 0.248474 0.73707 
5.0382 -0.144081 0.891893 
4.77864 -0.306691 0.233852 
4.40178 -0.219857 0.215428 
4.45869 -0.45329 0.717544 
5.31013 -0.683549 0.320686 
4.59081 0.0919644 0.0518864 
4.53876 -0.656074 0.178129 
3.87255 -0.675882 0.0497174 
3.63991 -0.344145 0.191702 
4.20429 -0.533898 0.014508 
4.08297 -0.323101 0.425672 
4.14118 -0.00234606 0.934475 
4.23915 0.471649 1.29351 
4.55918 0.0175806 1.03943 
4.59903 0.415658 0.954401 
4.20915 -0.444333 1.45909 
4.0642 -0.569521 0.872137 
4.60914 -0.49774 1.13839 
4.38874 0.559678 0.450249 
5.22384 0.541757 0.966279 
4.92812 0.647495 1.36744 
5.1227 0.685729 1.87986 
5.50891 0.498482 1.50839 
4.86827 0.0228561 1.29459 
4.80453 -0.0941431 1.88446 
4.74827 0.529631 1.85556 
5.02055 0.319704 1.62137 
5.03326 0.121873 2.29831 
4.60834 -0.356864 2.24667 
5.40231 -0.178886 2.34716 
5.3469 0.27142 2.41508 
4.88293 -0.1505 2.46196 
5.24497 0.336114 2.05367 
5.72393 0.564318 2.34139 
5.70138 0.215142 2.18648 
5.56902 0.564196 1.86924 
5.85983 0.221047 1.61348 
6.18898 0.198562 1.15313 
6.06875 -0.373117 1.8616 
6.00366 0.379737 2.0407 
6.41753 0.364872 1.77218 
6.01852 0.648258 1.62437 
5.87072 0.505706 1.34689 
5.52502 0.302541 1.05302 
5.51103 0.371985 0.710194 
5.40398 0.687854 0.527863 
5.86795 0.324704 0.658459 
6.24405 0.368453 0.222361 
5.81732 0.624927 0.168873 
6.72294 0.547957 0.0940091 
6.77158 0.630356 0.583678 
7.29941 0.584095 0.0616235 
7.86303 0.616954 0.0567355 
7.33227 0.579207 0.496983 
6.99964 0.160672 0.928201 
7.7708 0.380739 0.69483 
7.71004 0.531025 1.20582 
7.98933 0.0350909 0.424002 
7.42515 0.10991 1.20235 
7.07294 0.374862 1.33396 
7.50268 0.658536 0.929305 
7.30396 0.508784 1.58821 
7.82984 0.622223 1.82895 
6.69165 0.362336 1.34809 
6.78286 0.431415 1.85816 
7.30874 0.544854 2.0989 
7.12155 0.00697473 1.97831 
6.68287 0.570381 2.19685 
7.61587 -0.149089 1.75437 
6.96548 -0.216965 2.32988 
7.47312 -0.312454 2.20126 
7.35408 0.254137 1.90774 
7.73926 0.282565 1.46386 
7.52145 0.311611 2.41328 
7.85962 0.0797493 2.12939 
7.93862 0.452429 2.27699 
7.89093 -0.04894 2.49447 
7.87494 -0.354241 2.19833 
7.71243 -0.683226 2.34862 
7.98512 -0.652226 2.03487 
7.39136 0.0598043 2.21222 
6.953 0.639223 1.56386 
7.58229 0.697629 1.49261 
7.67819 0.694971 0.338692 
7.024 -0.203674 1.0396 
7.88418 0.169964 0.118341 
7.13853 0.69315 1.09452 
6.7373 0.690212 1.19633 
6.43929 0.522053 0.958864 
6.46996 0.664334 0.340927 
5.79864 0.6707 0.666857 
6.17615 0.627717 2.2338 
5.61415 -0.663565 2.07152 
5.78399 -0.680984 1.71879 
5.25871 -0.560658 2.12566 
5.66018 -0.399014 2.45768 
5.68824 -0.688775 1.32307 
6.04461 -0.180162 1.02304 
6.01247 -0.203674 0.54913 
6.3754 -0.102002 0.0160719 
5.85052 0.0321304 2.48418 
5.07646 0.63224 2.46855 
4.89692 0.575973 0.575524 
4.13094 0.0909439 0.149181 
4.71274 0.666106 0.264911 
3.77731 0.330432 0.0254837 
4.00725 0.351055 0.38339 
3.88698 0.206509 0.734727 
3.97263 0.577541 0.844658 
4.25801 0.31644 0.874127 
3.13945 -0.672568 0.174945 
5.13564 -0.333851 0.0513851 
5.01956 -0.528538 0.49318 
3.81489 -0.288256 0.674207 
4.79615 -0.27951 0.588228 
4.90821 0.296046 0.0808636 
4.22309 0.634201 0.109451 
3.84089 0.696363 0.0979488 
3.4243 0.420186 0.278532 
6.60609 -0.460059 0.821952 
5.65283 -0.635237 0.378862 
5.29933 -0.249355 0.675337 
7.04222 0.672548 0.319735 
7.88314 -0.569177 0.906599 
6.5401 -0.336835 1.50421 
6.27398 -0.644835 2.02821 
6.48964 -0.446821 2.47013 
7.09183 -0.662577 2.41676 
7.24079 -0.602538 1.96213 
5.75941 -0.425402 0.906618 
5.0833 -0.532625 0.918235 
6.29539 0.566055 1.41124 
5.96029 0.606939 0.986269 
4.75757 -0.669445 1.66668 
5.52711 0.0928915 1.53084 
4.05625 0.64025 1.93495 
4.08836 0.0393856 1.48591 
3.29739 0.30076 2.10911 
3.73029 0.286886 2.46629 
2.79816 -0.0242334 2.41131 
4.05553 -0.45721 1.91824 
4.25657 -0.0857224 2.0131 
2.04836 0.39131 1.66283 
2.4629 -0.527601 1.10284 
2.05332 -0.453151 1.48659 
1.74797 -0.687854 1.05285 
2.05205 -0.675862 1.21619 
1.84559 -0.250998 1.77294 
1.89643 0.0544462 2.3808 
1.51395 -0.111068 2.47322 
1.43318 -0.469739 2.33957 
1.75227 -0.679808 2.39523 
0.944072 0.22231 2.45338 
1.31173 0.314761 2.48034 
1.09567 -0.000985372 2.20214 
0.421839 0.448632 2.24466 
0.732615 -0.113219 2.39704 
-0.140012 0.601009 2.24376 
-0.0745128 0.116506 2.47266 
0.938368 0.36291 2.12021 
-0.185856 0.283167 2.06553 
0.241779 0.111169 2.02806 
-0.61512 0.432798 2.46732 
0.035831 -0.29678 2.36515 
0.497508 -0.669775 2.44681 
-0.337164 -0.215121 1.86931 
-0.908831 -0.0472163 1.83408 
-0.79345 -0.307762 1.57727 
-0.429806 -0.507158 1.52404 
-0.629201 -0.560393 1.98977 
-0.823878 -0.253872 2.25615 
-0.86263 0.132969 2.49726 
-0.881898 0.417969 1.89785 
-0.535232 0.227861 2.18705 
-0.458514 -0.183923 2.36991 
-0.282726 -0.591143 2.34218 
0.139262 -0.28184 2.01377 
0.134382 -0.644113 2.16053 
0.628854 -0.062537 2.04608 
0.661165 0.228508 1.75619 
1.0591 0.135196 1.54825 
0.812879 -0.400031 1.69663 
0.773273 -0.616361 1.36719 
0.301326 -0.328553 1.31129 
1.13833 -0.639324 1.69636 
0.606162 -0.645998 1.86766 
0.0119318 -0.413002 0.848538 
0.318247 0.0550908 1.65453 
0.169264 0.609622 1.69907 
-0.164376 0.347784 1.63152 
-0.517784 0.680896 2.02881 
-0.717821 0.130007 1.48631 
-0.98962 0.404306 1.54219 
-0.727852 0.654525 1.60268 
-0.601456 -0.0208035 1.08045 
-0.957791 0.238373 0.683087 
-0.927328 0.336743 1.16881 
-0.644933 0.492738 0.865906 
-0.33835 0.626837 0.971029 
-0.837097 0.5952 0.53088 
-0.464361 0.457886 1.34142 
-0.985741 0.353109 0.12145 
-0.440436 0.488794 0.387534 
-0.707371 -0.0571798 0.31628 
-0.940896 -0.379261 0.912569 
-0.510747 -0.682763 1.14828 
-0.743648 -0.697578 1.44059 
-0.504201 -0.191704 0.722545 
-0.593739 -0.559148 0.812639 
-0.80896 -0.58192 0.193994 
-0.169005 -0.536946 0.0771646 
-0.813572 -0.497636 0.543528 
0.417333 -0.683682 1.19894 
0.718316 -0.386051 0.973161 
0.963184 0.551268 1.535 
0.533554 0.694782 2.0226 
0.0161563 -0.509841 1.75702 
-0.915058 0.676316 2.28204 
-0.845066 -0.690193 1.03507 
-0.272016 -0.678243 1.88957 
-0.947741 -0.0663405 1.08308 
0.850185 -0.630119 2.33119 
0.318373 -0.0311488 2.35737 
1.34582 0.547736 2.0365 
1.8465 -0.303007 2.29131 
1.74681 0.131404 1.89134 
1.47798 -0.692281 1.33601 
2.06257 -0.560432 0.58221 
2.04926 0.0211209 1.34678 
2.00727 0.304612 0.796176 
1.95124 0.645689 0.325618 
1.34145 0.654663 0.182743 
2.84984 0.080678 0.75566 
2.4284 -0.0135854 0.894447 
2.09559 0.403637 1.18143 
2.8487 -0.545326 2.44464 
2.08447 0.683126 1.41886 
2.32908 -0.0940241 1.76427 
2.23722 -0.508988 1.9004 
0.740144 0.505144 2.37402 
1.14009 -0.235146 1.16139 
1.32254 0.508172 0.820185 
1.43539 0.163642 0.63711 
1.80147 0.214777 0.0385448 
0.252229 0.617003 1.06547 
0.726728 0.626918 0.406916 
0.750721 -0.0504547 0.419868 
0.617471 -0.663901 0.158003 
-0.458483 -0.535341 0.349418 
0.344128 -0.300593 0.791998 
0.717269 0.301793 1.17133 
0.621706 0.638117 1.41562 
0.785936 0.300029 0.598131 
0.327351 0.603741 0.715233 
2.46651 -0.650447 0.332735 
1.65765 -0.233168 0.56175 
2.51215 0.377983 0.0500513 
2.21166 0.294977 0.304869 
3.36098 -0.0841851 0.182394 
2.90236 -0.419376 0.0430983 
3.06729 0.67097 0.0956438 
3.40672 -0.652936 0.886534 
3.43859 0.218316 0.811491 
3.29767 -0.401723 0.617367 
5 0 4 
3.96674 1.76205 4.94114 
6.08614 0.772513 5.25454 
5.94114 -1.39669 5.08614 
4.89396 -2.06276 3.98152 
4.98152 2.28596 4.16886 
3.92191 -1.13358 3.09612 
2.78833 -2.03746 4.86562 
4.75659 -2.76238 2.39695 
3.62187 0.169968 3.9308 
2.02923 -1.39007 2.37295 
4.34035 -0.948749 4.55221 
6.08565 -1.17949 3.49957 
3.77357 1.03016 3.05021 
3.62522 3.1939 3.0043 
5.93731 0.984246 3.45366 
5.40215 1.59599 1.9955 
2.84102 2.33111 4.67879 
1.53179 1.06725 3.28571 
3.81066 1.26565 1.77603 
2.49938 -0.326674 3.30218 
3.29749 -2.24363 2.76929 
2.92697 -1.14757 0.212164 
1.91924 -1.39258 0.717356 
4.22445 -1.85879 1.73268 
2.81226 1.81932 2.12908 
3.05225 -1.39678 1.67645 
0.107806 -2.86431 1.09738 
-0.739381 -1.86846 2.17862 
-1.5908 -0.747182 2.64712 
-2.53233 -2.91097 1.36087 
-1.78189 -2.6862 2.64068 
-0.75763 -1.45864 0.852444 
0.82826 -1.8867 2.58843 
-1.80438 -0.903704 1.05409 
0.111907 -3.12178 3.2245 
-1.53762 -2.24496 0.475275 
-3.61589 -3.04321 0.0987684 
-1.52409 -3.86099 0.374373 
-2.98782 -1.58786 2.09678 
-0.536667 -3.77288 1.68715 
-4.77689 -2.50138 2.94984 
-4.17408 -0.211598 0.994244 
-3.90134 -0.734811 2.27078 
-2.97946 -2.14405 3.96216 
-3.54401 0.277513 2.98516 
-2.84715 -0.365588 1.11275 
-4.2107 -1.41923 0.889439 
-4.72587 -2.93217 1.66527 
-4.16958 -3.96893 3.38215 
-3.17568 -3.13252 4.98178 
-4.91736 -3.10399 4.5389 
-4.1859 -1.73297 4.8989 
-3.54635 -2.74399 6.11311 
-4.55737 -1.52978 6.08373 
-4.6168 -3.76018 5.91244 
-4.90793 -1.58921 3.85334 
-4.72865 0.365867 7.27498 
-4.78194 -0.390987 4.56196 
-4.88576 1.03676 3.85264 
-4.49092 0.669058 6.12853 
-3.14764 -0.577952 5.77992 
-3.16936 0.529819 5.03854 
-3.35632 1.74778 3.38141 
-1.55678 1.45063 5.51512 
-2.57105 0.314415 3.74393 
-3.38476 -0.76479 3.6552 
-1.09455 -0.252069 5.42309 
-3.31971 -0.211917 7.11335 
-3.72268 1.73917 6.14269 
-2.80607 2.54626 4.92262 
-3.35939 3.75561 6.02676 
-0.789631 2.43033 4.14489 
-1.59672 3.65041 3.69317 
-1.70192 1.31681 3.80942 
-1.84939 3.76483 5.41373 
-1.5875 3.03738 6.3255 
-2.31495 3.94915 6.59184 
-1.33057 3.09466 7.79497 
-3.93286 3.91385 7.34065 
-4.4512 3.346 5.84512 
-4.6817 1.6714 4.90437 
-4.92225 3.58897 4.66677 
-4.81664 3.69998 2.56249 
-3.52815 3.69458 4.77777 
-3.21011 2.65757 2.18833 
-3.3555 3.39023 0.961911 
-4.2418 3.03986 1.69562 
-4.90192 2.17299 2.9741 
-3.05959 1.69278 0.611592 
-1.36862 1.95926 0.833369 
-1.91232 0.438269 1.83779 
-2.04793 1.52998 2.72979 
-1.31789 0.276805 0.247213 
0.240641 0.739983 3.18529 
0.113725 2.06363 1.33689 
1.81021 2.96198 1.87765 
0.445795 3.76012 2.23524 
-0.32974 3.03499 2.9362 
1.08508 3.66295 0.260386 
-0.355549 1.38375 0.20308 
-1.02008 2.96169 0.365384 
-2.41564 2.59746 0.280576 
-0.569565 3.97173 1.69115 
-3.79649 1.60865 1.62629 
-4.95826 0.776211 1.80834 
0.710267 1.82906 0.228983 
1.98759 1.94365 1.27952 
3.68871 2.51257 0.172456 
3.25737 3.66659 1.02522 
4.98032 3.4123 0.655885 
3.71947 2.59267 1.5279 
6.44618 3.16336 2.06974 
6.39417 1.91812 1.00531 
5.39585 1.25585 0.0010078 
5.96579 -1.95299 0.674755 
7.95336 -1.25588 0.0178405 
7.63699 -1.79732 1.13801 
6.88438 -1.93268 2.3572 
7.49808 1.81647 2.64802 
7.71185 1.81447 1.45682 
9.9062 0.221566 0.0697779 
8.44841 -2.09418 2.14832 
8.24908 1.4553 0.352954 
9.3967 0.992746 0.822838 
9.47712 2.88776 0.71364 
8.82853 1.23206 2.35538 
9.94903 -0.972234 0.903256 
8.33535 2.86394 1.37517 
11.5133 1.65113 0.333484 
10.312 0.885081 2.77597 
11.2272 0.777416 4.72909 
10.2283 -1.00538 2.97576 
10.952 1.46251 1.33994 
10.8894 -0.550946 4.11347 
9.63389 -0.0953338 1.57715 
10.9168 -0.183189 2.09789 
11.3518 2.83712 3.38079 
12.415 0.0681083 2.44543 
14.5181 -0.748864 2.11489 
12.5616 -0.225003 4.54849 
12.1219 2.17117 1.62845 
12.0845 1.04897 3.03682 
13.3959 0.6595 3.8245 
14.3225 -0.0329045 3.16393 
12.314 0.786615 1.36348 
13.1335 -1.01384 3.0342 
11.5724 0.15836 0.506453 
12.0019 -1.53699 1.7614 
12.0921 -3.47596 2.65926 
12.998 -2.18674 3.11176 
12.2216 -3.67931 1.0974 
11.2667 -1.02592 0.276787 
10.4335 -2.85099 2.7995 
10.1818 -2.02367 4.34173 
9.64163 -3.79336 1.63038 
9.26434 -3.86185 4.23414 
10.3798 -3.25032 4.25085 
8.55585 -2.67716 4.0726 
7.68612 -3.02552 6.13837 
8.2075 -0.611391 4.76271 
9.24597 -3.78739 5.87655 
8.85876 -3.74042 3.03479 
7.57825 -3.44308 4.04174 
7.5474 -1.61877 3.57337 
6.52321 -3.07905 2.3826 
5.91911 -3.97986 3.94088 
7.22 -1.61953 5.00041 
6.61715 -0.270683 4.84237 
8.56885 -1.77757 6.75942 
5.48116 -2.81772 5.1732 
6.5854 -0.779744 6.65417 
7.58378 -0.540731 7.96703 
6.82442 0.533118 6.42766 
4.617 0.218631 6.89318 
7.84951 0.153338 5.88831 
4.96568 -1.53428 6.44167 
3.70949 -1.24483 6.38025 
4.47702 0.0780298 5.11478 
4.90427 -2.16039 7.77052 
6.54026 -2.80684 7.33043 
4.18464 -2.33388 5.27705 
3.4036 -3.13348 4.11244 
3.31027 -3.90894 5.21823 
3.55295 -3.81263 2.35913 
4.38978 -3.63459 4.81385 
3.3771 -3.5152 6.64915 
6.40187 -3.44058 5.88303 
1.86651 -1.90514 7.05109 
1.42144 -2.84721 7.58214 
2.10298 -3.99836 6.23186 
0.952358 -3.71006 6.24175 
1.81973 -2.74827 4.95746 
1.92662 -3.3409 3.74654 
0.608803 -1.39759 4.8782 
1.95948 -1.47686 4.00544 
0.529537 -2.27035 4.00432 
-0.263953 -2.27147 6.72003 
-0.786137 -2.09854 5.35827 
2.35825 -0.300605 5.65099 
0.736249 0.310456 5.0943 
2.81895 0.730786 5.13389 
0.863694 2.01851 5.3104 
1.38484 0.437902 6.80235 
-0.29664 -0.613323 7.00178 
0.333615 0.637334 7.25965 
1.58427 0.895206 5.76442 
3.11879 0.22546 6.41235 
2.58706 1.83511 5.96612 
0.780863 -1.11268 7.50859 
1.52833 -1.71666 5.95801 
0.22743 -2.83262 5.31574 
-1.66734 -3.08187 4.35079 
-1.20996 -3.68588 5.35029 
-0.0218171 -3.79757 4.69125 
-0.737517 -3.45711 7.12807 
-1.77203 -2.94953 6.84789 
-2.05221 -2.12784 5.41906 
-2.97672 -3.67752 7.05304 
-2.01766 -0.993771 6.35471 
-2.53403 -0.994176 4.78088 
-2.06167 0.275593 6.42245 
-1.26426 0.647391 4.64861 
-0.315392 -0.241251 3.94668 
0.680428 1.58256 3.99666 
0.900274 -0.453556 3.95002 
0.633789 1.81404 2.85391 
0.985609 3.21068 4.10757 
2.34335 3.54208 2.9346 
1.02073 -0.561508 6.21941 
1.93295 -0.0849233 4.54004 
3.3947 -0.746484 5.19953 
-2.46565 1.60517 7.70865 
-1.65322 -1.92458 7.43117 
-4.71369 -3.93541 7.95288 
-2.17427 -3.95843 7.97158 
-4.15166 -2.97179 7.10306 
-4.86236 -1.68787 7.19782 
-2.15472 0.242309 7.9276 
-0.697867 0.184808 7.76341 
-3.13335 -1.5114 7.12578 
-0.671727 1.96424 6.7993 
-0.213506 3.35157 7.46409 
0.667682 1.82495 6.78952 
-0.6815 0.968968 6.17256 
-0.422865 3.24623 5.08385 
-0.109333 3.88329 4.14373 
1.93152 2.95525 7.8998 
3.4165 2.1499 7.95378 
1.12616 3.00924 6.81128 
3.16993 3.95315 6.69828 
5.29626 3.65674 7.05536 
4.04401 3.18273 5.86276 
2.47317 3.70545 4.74171 
4.5708 3.90014 4.5042 
5.94437 2.15672 5.00136 
3.34073 3.87254 3.98417 
4.95271 3.08758 2.89235 
5.987 3.51137 4.78677 
6.84713 2.71857 3.62128 
7.34774 3.66538 5.47141 
8.109 2.32185 5.12613 
8.35197 3.66538 4.47615 
7.79394 3.57344 2.27746 
8.37898 3.69489 0.308745 
7.33859 2.83893 0.798898 
9.93884 3.31391 5.6652 
9.93821 3.7587 3.66759 
8.44528 2.85683 2.98489 
9.28492 3.79458 6.54511 
9.70509 3.09803 7.77495 
7.46001 2.70752 6.96527 
10.5148 3.4441 6.99469 
7.65351 3.66699 7.71825 
11.7666 3.34101 6.18928 
12.038 2.20038 7.47994 
13.8129 2.75478 7.14857 
12.5924 1.86901 6.51709 
11.0752 1.27125 5.79988 
11.1774 1.74552 3.74009 
12.111 2.42649 4.91853 
12.3624 1.27016 4.4547 
13.1846 2.43934 4.16747 
12.3613 -0.0750243 6.17835 
14.0861 0.389557 5.19766 
14.0645 2.08791 5.97377 
14.754 -0.289442 6.83133 
14.5819 1.67039 3.77982 
14.2712 1.50301 7.07184 
14.9688 0.84636 7.78513 
13.5449 3.22164 6.1263 
14.7428 2.96303 4.42495 
12.8459 3.50908 7.96569 
14.5108 3.46474 7.93625 
14.4536 3.92805 6.37349 
13.325 3.76052 4.98576 
11.9919 3.89165 4.42107 
11.9511 3.4973 2.61623 
11.9103 3.10296 0.811392 
10.4756 3.45649 2.22189 
14.0198 3.10866 2.62716 
13.5153 3.03937 0.464311 
14.1699 3.90188 1.29343 
14.813 1.77493 1.05974 
13.2998 2.36762 1.65422 
12.9549 3.89408 3.31264 
12.9658 1.88488 0.22221 
13.3363 -0.0502712 0.370696 
13.9217 1.03248 0.937224 
14.5804 1.71721 2.50571 
14.7765 0.791408 1.68942 
14.2478 -1.17726 1.02344 
13.7666 -2.43967 0.58981 
12.6313 -2.37372 1.22947 
14.4538 -2.96561 2.19186 
14.4962 -2.44416 3.26156 
14.8523 -1.2344 3.60047 
13.8275 -2.68022 5.33923 
13.7409 -3.43973 4.27739 
13.5006 -1.42833 4.23909 
13.3784 -3.47877 2.11895 
14.9933 -3.05419 4.2539 
14.7562 -2.30946 6.38525 
13.6164 -1.37673 6.65918 
12.3996 -1.90959 6.27143 
14.8937 -1.28825 7.63258 
12.465 -1.93845 7.64626 
11.6206 -0.637981 6.89445 
10.9067 1.36384 7.2356 
13.6225 -0.296835 7.37862 
10.2395 -0.824351 6.99993 
11.0396 -2.01907 6.70808 
10.7986 0.185263 6.08776 
9.99187 -1.3069 5.3158 
9.97648 1.00851 5.28107 
8.71773 0.402356 5.08947 
9.66783 -0.250244 4.67492 
9.78488 1.81891 6.22564 
9.8997 0.542815 7.07663 
8.13443 0.728807 4.0329 
9.32209 0.282961 3.61849 
10.0402 1.9341 4.17189 
10.858 2.45624 6.03969 
10.604 2.84015 4.78401 
8.88599 1.9582 3.65561 
9.96598 2.31295 3.03781 
8.72093 1.34111 6.66431 
10.698 0.130491 7.94367 
9.48737 1.40985 7.85733 
10.0864 -2.03735 7.49272 
10.819 -3.01479 5.96722 
11.0411 -3.1575 7.46727 
11.3888 -1.59189 5.65898 
9.9771 -3.89455 7.61568 
12.4674 -3.41994 5.33967 
14.2884 -3.82729 5.42618 
12.0601 -3.33342 3.80995 
12.5926 -3.73502 7.01962 
13.7502 -2.7425 7.30379 
13.6579 -3.93641 7.42446 
11.6272 -2.58429 2.06564 
9.78472 -2.23193 2.03389 
11.8314 -1.68599 3.98593 
11.2484 -2.29798 0.0705459 
9.70052 -3.11269 0.281877 
10.138 -1.8961 0.15239 
10.9171 -3.24218 1.05815 
8.93278 -2.76105 1.31246 
8.75195 -3.86408 0.767845 
7.19456 -3.58658 0.869829 
7.53155 -3.65661 2.25514 
9.00934 -0.6864 5.68725 
9.28752 -1.10709 7.78407 
7.90322 0.265383 7.13598 
5.76832 0.885498 6.72238 
7.56392 1.49911 7.28097 
3.77836 1.37147 6.7813 
5.28054 2.41201 7.14878 
4.7111 2.16002 5.83192 
2.63219 3.0557 6.00909 
9.24398 -2.75896 6.52456 
7.64048 -3.44126 7.61914 
7.50839 -1.71399 6.20826 
13.3037 -1.2425 5.42796 
14.5838 -1.94486 4.48884 
14.8254 -0.868024 5.81356 
14.8687 -3.79047 3.15445 
12.1389 0.496215 7.87574 
13.3921 0.909179 7.82087 
12.9786 0.774811 5.71031 
12.7144 -2.25501 4.54075 
12.0099 -0.467678 3.4786 
13.1875 1.20193 2.62686 
11.0598 1.99539 2.5552 
12.8105 -1.2265 0.390693 
10.3201 3.95809 0.00919154 
14.9637 3.21517 3.32237 
14.9353 -0.279852 4.72566 
14.8518 3.02428 5.72908 
12.4684 2.39718 3.18423 
6.3559 3.62881 7.78831 
6.1522 2.80104 6.08782 
7.01863 1.57256 4.50927 
10.9264 2.97301 7.97873 
5.99903 3.83362 3.2228 
6.951 1.89592 6.27577 
4.10036 3.78551 7.82714 
2.40213 0.874983 7.40207 
2.1452 -0.427819 7.39826 
3.37072 -0.119651 7.48811 
3.18112 -2.30066 7.90619 
5.34436 -0.400172 7.74936 
-0.166477 1.46224 7.96553 
1.83435 2.0737 6.82945 
-0.248437 1.14571 5.08524 
1.90607 1.50882 4.65375 
1.42204 3.03772 5.36854 
0.516044 3.95205 5.55481 
-0.570681 2.16766 5.53224 
-2.53084 2.04964 6.52851 
-4.42972 2.77704 7.52716 
-1.79781 -1.31284 3.91785 
-0.627086 -1.93485 3.32825 
0.255967 -2.1136 7.84278 
0.565753 -3.66128 7.53097 
0.621084 -3.13026 2.14569 
2.07145 -2.89607 1.51287 
1.87754 -2.87132 6.36871 
2.79777 -2.87699 0.620377 
4.47518 -3.8295 1.34432 
4.5655 -3.52083 7.12538 
6.47512 -0.0369817 7.94818 
8.97011 -2.71301 5.27235 
8.10416 -2.20365 7.86529 
4.85287 -3.91577 2.89894 
5.90786 -2.36908 3.45938 
6.91341 -2.74474 4.80133 
8.7922 -0.551176 2.8493 
11.2159 -3.83767 5.12566 
14.0141 -3.79968 0.919039 
13.2402 -0.57987 1.71083 
12.8951 3.87009 1.84284 
8.69054 -1.39228 3.86016 
10.5075 2.71215 1.22161 
7.1889 3.97578 0.880275 
8.4601 -2.7906 0.0277332 
4.92298 -1.35049 0.631761 
5.50693 -3.23163 0.544956 
6.17785 3.00334 0.544015 
2.18765 2.73261 0.280307 
2.51961 1.61549 0.230657 
-1.64535 3.29964 2.03382 
-2.00348 3.97709 0.192202 
2.76446 1.63554 3.48684 
2.11429 2.845 3.90142 
-4.26845 2.07988 0.474988 
-4.97295 3.45124 0.320546 
-2.47883 2.73843 3.74364 
-2.53506 3.19172 7.94802 
-3.09032 3.99415 3.02184 
-3.49787 1.07185 7.23182 
-4.93075 -0.31071 3.06941 
-4.92142 1.8232 6.91046 
-4.74356 -1.65951 2.03278 
-3.00482 -3.91088 3.20576 
-2.73935 -1.98153 0.386285 
0.0710077 -3.57088 0.0874972 
0.808382 -1.72326 0.812101 
-4.64021 -3.99904 0.715556 
1.59263 -3.25239 0.350832 
4.19115 -3.57543 0.22509 
4.15706 1.11703 0.457625 
3.28342 -1.28242 4.09014 
3.64476 -2.94496 1.5132 
